# .PCD v0.7 - Point Cloud Data file format
VERSION 0.7
FIELDS x y z
SIZE 4 4 4
TYPE F F F
COUNT 1 1 1
WIDTH 1531
HEIGHT 1
VIEWPOINT 0 0 0 1 0 0 0
POINTS 1531
DATA ascii
-12.523756 -46.505005 6.3583546
48.252438 -2.155268 6.3936272
48.137573 -1.8968281 6.3782063
47.899796 -1.6355115 6.3478541
-37.450874 3.3336048 6.3850417
46.793541 9.0847006 6.315618
47.315189 9.4438744 6.3869662
-14.445086 34.175098 6.3177886
-13.963188 34.538582 6.3421016
31.426359 36.022266 6.3277125
13.179986 -47.34454 6.4867158
11.03625 -47.234268 6.4077387
12.589271 -47.133415 6.4424748
-14.972068 -46.716354 6.4676037
-15.226017 -46.66674 6.4713292
-16.742165 -46.326355 6.4918914
-37.89492 2.9745226 6.4503646
-37.468281 6.9273348 6.4651589
-37.324013 7.102458 6.4478326
-36.964817 7.4349656 6.402153
-37.208504 8.7059965 6.4827876
-37.034214 9.0743389 6.4695749
47.821968 10.068246 6.4632926
-15.416871 34.942177 6.4900889
-13.752598 35.073174 6.4086103
30.473633 37.634182 6.4035497
30.369919 38.320248 6.4612136
38.343029 -58.321419 6.5606804
39.203346 -58.287464 6.5999761
37.775177 -58.120777 6.5187593
14.025592 -47.4753 6.5310011
15.063056 -47.310219 6.5492854
16.168438 -47.321899 6.5934701
-18.480839 -46.516861 6.5890479
-17.046 -46.406654 6.513855
49.722336 -3.0064781 6.5793381
49.420383 -2.7278001 6.5403543
47.947601 11.151402 6.5070548
47.822159 12.186615 6.5221119
47.509495 13.175838 6.5161619
47.656528 14.028659 6.5622368
-15.860189 35.447941 6.5917149
17.403521 -47.641205 6.681262
-19.63434 -46.557251 6.6470275
-20.092859 -46.284466 6.6382427
-21.19873 -46.162529 6.6796684
50.215424 -3.3010335 6.6420355
47.240158 18.625061 6.6969709
46.983536 18.809732 6.6760321
46.775764 19.012293 6.6616497
18.219667 -47.539726 6.7049317
19.909719 -47.424286 6.7695122
20.50362 -47.437145 6.7996855
48.493 15.668854 6.7196755
48.526016 16.244219 6.7455525
48.393738 17.052294 6.7623549
47.889072 17.727659 6.732172
21.827078 -47.720173 6.8977571
-37.155182 37.084427 6.8839464
-1.5437461 40.272564 6.8311238
-0.9118402 40.359543 6.8421407
-2.1984091 40.670227 6.8985333
22.168747 -47.80164 6.9244618
23.265446 -47.526615 6.9521861
24.085443 -47.301193 6.9726057
48.803959 20.434175 6.9583879
49.923271 -57.141415 7.0938492
50.100204 -56.740749 7.0777674
50.884621 -55.833309 7.0646181
51.31897 -55.719597 7.082993
31.475945 -43.797195 7.0793748
-38.474232 -17.093662 7.0995727
-42.065636 -0.65955162 7.0932417
-36.614479 19.834532 7.027535
-36.517956 20.029873 7.0289674
50.030544 -58.489536 7.1891322
50.109112 -57.963684 7.1587725
32.446239 -44.159344 7.1855063
-38.553833 -18.104082 7.1777105
-39.157925 -16.910179 7.1870217
-41.544884 -9.4963799 7.1801262
-41.35722 -8.9995003 7.1339383
48.760948 25.091822 7.1947613
47.852463 25.909977 7.1428728
47.876034 26.24851 7.1652656
49.8298 -59.506344 7.2456083
49.843937 -58.893673 7.20544
53.064674 -56.412731 7.2315207
31.058428 -45.695637 7.2407598
31.951851 -44.95153 7.2286015
33.132412 -44.114326 7.2314343
50.096119 24.136499 7.2893844
49.807606 24.320713 7.2673483
48.106037 27.034716 7.2367358
47.928024 27.266806 7.2316985
47.231567 28.199738 7.2153516
46.954468 29.046789 7.2401767
51.131348 23.976166 7.3958001
25.474253 35.479595 7.3773685
49.56992 -63.12495 7.4769516
49.82793 -62.773083 7.4668198
50.130547 -62.478588 7.4632392
50.713192 -61.864052 7.4536738
-0.98603737 -44.199444 7.4504337
3.4073856 -44.012203 7.4417558
-0.059725069 -43.991058 7.4160857
1.0921373 -43.951839 7.4125061
2.0140884 -43.937366 7.4157648
3.1741931 -43.996571 7.4364347
-43.335468 -10.624623 7.497355
25.340937 36.085953 7.4432893
62.047794 -52.875198 7.5886316
61.984241 -52.262756 7.5497789
62.128433 -51.829327 7.5351119
62.422489 -50.97382 7.5073767
63.273716 -50.029831 7.5137997
63.735847 -49.853745 7.5360913
64.120125 -49.614136 7.549787
64.538094 -48.863728 7.5389872
65.099304 -48.222336 7.5447149
65.354446 -47.882343 7.5450759
57.730145 -4.4032121 7.5719948
53.117157 23.225256 7.5800304
52.652328 23.352386 7.5340576
66.595085 -47.724621 7.6249366
-37.133854 -26.923801 7.698122
-37.769409 -25.905472 7.6871405
-39.921539 -22.451017 7.6865296
-45.061752 -6.883316 7.6499596
-37.407227 -0.78178412 7.6984482
-37.298298 2.5357563 7.6924706
-36.829102 2.8906009 7.6065664
-36.803677 3.0821214 7.6046596
67.661743 -47.952717 7.7125454
-36.958843 -27.995771 7.7771859
-37.009838 -27.42938 7.7297401
-38.134201 -25.57358 7.7053413
-39.024654 -25.004284 7.773643
-39.282459 -24.880932 7.7975307
-39.895702 -23.831234 7.7928834
-40.176929 -22.319168 7.7116013
-37.762192 -1.1840442 7.7694721
-37.712158 1.18134 7.7597346
-37.257671 27.310879 7.7501431
-2.5192966 -46.971096 7.8977852
-1.7733347 -46.797642 7.8652334
-40.009357 -24.184305 7.8371668
-37.229229 9.5358143 7.8965893
-37.038792 10.108209 7.8893461
-36.982193 10.300678 7.8887172
70.172508 -49.178345 7.9539018
70.478745 -48.843559 7.959167
71.168587 -48.223976 7.9783711
5.6717906 -47.279453 7.9928498
-3.2693987 -47.106899 7.9262557
-5.4979925 -47.004009 7.9418888
-4.5027514 -47.011375 7.9267659
-2.76841 -47.011147 7.9062371
4.1452937 -47.026413 7.9273782
-6.2355514 -46.908302 7.9410377
-5.9896932 -46.940029 7.9410877
-4.7496939 -46.994339 7.9278131
-7.4756927 -46.816616 7.9546151
-8.9735136 -46.718845 7.9798703
-9.9745588 -46.63546 7.9980803
-10.461265 -46.522793 7.9969764
-38.745014 4.0621839 7.9983001
-37.82333 8.8503113 7.9769311
-36.962749 11.132903 7.9302545
-37.020023 11.573642 7.966104
31.555502 35.413895 7.9736905
71.657913 -48.008667 8.0033789
72.431847 -47.977959 8.0582714
73.03215 -47.825867 8.0948429
5.9309654 -47.338425 8.0072145
6.1820364 -47.329262 8.0109196
7.1823721 -47.249668 8.0209923
8.4530249 -47.236637 8.0522919
9.2266951 -47.258671 8.0785465
10.24418 -47.184509 8.0999651
-12.811893 -46.603127 8.0987024
-11.777292 -46.638844 8.0627689
-10.959275 -46.458977 8.0046425
-46.615704 -41.479576 8.0993328
-46.850868 -40.817894 8.067214
-47.072384 -40.579563 8.0685539
-48.666569 -38.940525 8.0901995
-49.102024 -38.039925 8.0636597
-38.340679 -29.363083 8.0825739
-37.130775 11.821773 8.0011826
-37.382778 12.117828 8.0654583
-37.129143 13.33586 8.0955706
-36.996532 13.506844 8.0826912
-36.34343 14.135641 8.0071802
-36.069839 15.125801 8.0302057
-35.962578 15.302255 8.0243931
31.942116 35.470325 8.0212774
32.345486 35.540421 8.0724573
31.438238 36.419147 8.0809269
12.091661 -47.252663 8.1784735
11.79198 -47.110718 8.1449375
-13.077896 -46.614964 8.1116896
-14.635419 -46.500031 8.1640415
-15.668982 -46.370777 8.1949863
-48.182705 -40.666992 8.1791449
-49.55822 -37.980541 8.1035337
-36.233467 -32.559265 8.1500826
-38.253185 -30.587997 8.1914759
-36.226295 16.090555 8.1326494
31.896317 -55.225883 8.2864475
32.061855 -54.847 8.2565012
33.136368 -54.04995 8.2405682
33.46867 -53.954498 8.2520742
75.27388 -48.171223 8.2759619
13.473721 -47.434101 8.2637424
14.025249 -47.474148 8.2943316
-17.326376 -46.418262 8.2894573
-16.781143 -46.434978 8.262351
-47.282257 -42.520134 8.2455645
-36.494068 -33.141415 8.2425833
-37.162365 -32.014977 8.2033339
-37.51931 -31.982611 8.2428627
-38.009819 -31.384344 8.2412882
-49.479088 -1.2936941 8.2692795
-49.345581 -0.0014479239 8.2454491
-40.067234 4.4130192 8.2611427
29.504326 -57.150837 8.3524199
30.123611 -56.878517 8.3581591
31.017675 -56.402699 8.3590879
-36.586918 -53.156311 8.3637266
-37.247967 -52.922165 8.3863745
15.099504 -47.423805 8.3370018
16.157789 -47.290955 8.3699207
-18.161209 -46.417912 8.3363428
-19.231535 -46.27499 8.3784037
-47.613861 -43.27243 8.3377647
-49.919197 -40.810326 8.3542585
-50.266636 -40.657639 8.3754816
-52.539967 -36.883579 8.3187265
-53.105537 -36.457283 8.3458357
-50.146191 -2.0986156 8.3792219
-40.689217 5.1285186 8.3975658
-36.884521 17.316452 8.3482447
34.965916 -55.064861 8.4654093
35.306885 -54.962318 8.4773979
-35.954128 -54.655418 8.4733152
-36.121567 -54.288212 8.4469929
-38.502029 -52.920185 8.4756041
-42.219334 -49.894924 8.4644642
-43.074158 -49.31374 8.4786043
17.882303 -47.40345 8.4796247
18.162811 -47.392334 8.4938612
-20.926365 -46.205368 8.4746561
-21.201866 -46.169395 8.4874897
-50.776058 -3.1898792 8.4879065
50.620094 0.13370383 8.4847441
50.431519 1.1930192 8.457078
50.285648 2.2473767 8.4396763
50.309891 3.043438 8.4501181
50.343445 4.1085606 8.4673462
50.42601 5.1837616 8.4959688
-37.147465 17.677979 8.4245358
-37.17165 18.168806 8.4703236
-36.958752 18.545866 8.4658756
-36.509937 19.042826 8.432373
-35.944702 19.959734 8.4203939
-35.834064 20.144075 8.4191561
-35.710384 21.069641 8.4883652
-35.381351 -55.671242 8.5400581
-39.690891 -52.792706 8.5496397
-40.032047 -52.670437 8.5628633
-41.008804 -52.232754 8.5934744
-41.175209 -51.882847 8.5723505
-42.001541 -51.25029 8.5754108
-42.133324 -50.865192 8.5491486
-44.222847 -49.573669 8.5957565
19.034931 -47.419357 8.5485668
-41.068066 -8.9363985 8.5957813
-51.328777 -4.3039889 8.5881529
-41.654362 -1.7423942 8.5295143
51.246922 -0.40299451 8.5842466
-41.1632 5.6260929 8.501543
-41.52454 6.1184044 8.5845728
50.47636 6.2630782 8.5231161
50.52092 7.0785351 8.5469875
50.646839 8.1843805 8.5927753
-50.743351 8.568512 8.5808725
-50.61937 9.0929756 8.575819
-36.710297 35.878902 8.5653543
-36.214424 36.142464 8.5389462
-35.913361 36.600307 8.557003
20.207712 -47.43478 8.6221924
21.390005 -47.422855 8.696022
-41.408291 -9.4650688 8.6827564
-42.167557 -1.9847183 8.6312685
-35.744141 2.2422607 8.6897774
-35.490215 3.1585293 8.6473713
-35.326435 4.0761914 8.631362
-35.400143 5.0246501 8.6762724
51.01289 7.6944857 8.638113
-51.08419 8.3517056 8.6284809
50.756073 9.0247278 8.6320515
-49.986797 13.092875 8.6146936
-50.026505 13.664004 8.6441984
-50.092587 14.246775 8.6791182
-36.162884 22.110014 8.6680861
-37.193535 35.973587 8.6306162
-37.688465 36.073494 8.6980076
-35.921555 37.384602 8.6471682
-45.149719 -50.084473 8.7183743
22.647602 -47.521797 8.7943983
-36.268108 -1.1370499 8.7985983
-36.182713 -0.94521171 8.7776136
-36.144852 2.0779977 8.7798386
-42.133801 6.4335966 8.7107983
51.018715 10.181239 8.7068195
25.162493 34.663078 8.7880058
-46.074249 -50.577118 8.8393688
23.261488 -47.51857 8.8364048
24.078003 -47.286652 8.861578
-36.608608 1.7212396 8.8824472
51.882454 11.205855 8.8737183
-51.30452 14.882751 8.8914471
24.889214 35.054253 8.8185978
-47.098343 -51.162907 8.9772797
-47.190662 -50.727261 8.9456625
59.436272 -35.890095 8.9861412
-36.943256 -2.1251593 8.9644861
-37.017639 0.96598494 8.9704313
-36.315857 5.9316506 8.9169531
-43.094204 7.2738657 8.9210987
-51.622803 15.268466 8.9570255
26.09795 35.165577 8.9745378
-37.363655 -59.488117 9.0663309
-1.2247545 -44.480091 9.0973072
-0.98763847 -44.280979 9.0575876
2.2540843 -44.107445 9.0345869
3.6509397 -44.144985 9.0607109
1.5551908 -44.002087 9.0078983
0.6320532 -43.998325 9.0022287
1.0932351 -43.991707 9.0029402
3.4058211 -43.992676 9.0272779
59.325768 -37.109715 9.0528784
59.341995 -36.688229 9.0272799
59.722363 -35.636372 9.0002642
60.178024 -35.481022 9.0386925
-43.067974 -10.558862 9.0457773
-43.458401 8.0383215 9.0167551
-35.936005 26.338982 9.0906696
38.628239 -59.429203 9.1594543
39.284424 -59.073017 9.1673012
39.649288 -58.948498 9.1795607
59.622578 -38.613277 9.1826363
61.202454 -35.223888 9.1315651
-44.069954 8.6291924 9.1550579
-49.582977 24.254562 9.1741953
-49.011925 25.259266 9.1649599
-48.900822 25.526627 9.1688824
31.086782 -46.256012 9.2860355
31.262758 -45.995125 9.2674894
32.042267 -45.078266 9.2190409
32.285961 -44.920078 9.2211828
33.199947 -44.68924 9.2773123
59.910412 -39.24683 9.2546644
-37.220352 -26.104836 9.2667646
-37.44458 -25.971231 9.2875881
-39.041702 -23.59766 9.296402
-39.328575 -22.936455 9.2785454
-44.8274 -7.3277984 9.2551432
-44.674793 -6.8240523 9.2105141
-36.944149 10.290048 9.2762127
-36.64212 11.036023 9.2573385
-35.35405 15.042469 9.2937202
-50.585766 23.769537 9.284071
-49.38866 26.1117 9.280426
-36.231609 27.144083 9.230154
60.629433 -40.172913 9.3909054
-37.132111 -27.220261 9.3794613
-38.033897 -25.795742 9.3626251
-39.002666 -24.134916 9.3445415
-37.156662 10.140479 9.3142948
-36.804882 12.142858 9.3702831
-36.129967 14.270245 9.3915415
-35.974308 14.426425 9.3715382
-40.024395 -23.063654 9.4078989
-40.304234 -22.945293 9.4436045
-37.979652 9.9404373 9.4858541
-37.063015 12.659444 9.4648294
-36.964062 13.276378 9.4905043
-36.63332 28.355228 9.4351349
-2.0256217 -46.962536 9.5846977
-4.733336 -46.828365 9.595191
-1.7757598 -46.866203 9.5641413
-5.7114286 -46.701271 9.5912609
-6.2036271 -46.663509 9.5958529
-7.6686268 -46.45565 9.5971355
-37.51297 -28.416857 9.5780296
-54.930809 -18.144133 9.5933352
-37.091148 13.10367 9.5047159
-36.6745 29.006449 9.5195913
-52.18721 -53.804539 9.6419544
-53.208912 -53.161861 9.6736288
-53.542194 -52.937828 9.6832085
-54.127293 -52.407223 9.6888895
-54.5513 -51.722095 9.6681767
4.9133625 -47.228851 9.6808844
5.1674705 -47.2616 9.6925735
-2.5261848 -47.105839 9.6169815
-3.5112619 -47.021175 9.6123352
-3.9988286 -46.92197 9.6004257
-9.4679966 -46.650082 9.6967726
-8.9429026 -46.55735 9.6595469
59.195484 -46.308868 9.6881542
59.425476 -45.988243 9.6863136
-55.265278 -18.89843 9.6816759
-55.213825 -17.918005 9.6247606
-35.300911 19.120651 9.6932001
-34.982231 19.423521 9.6624517
-34.559353 20.145277 9.6602859
50.500843 -56.593063 9.7713537
50.949959 -55.904839 9.7456427
-52.240902 -54.427902 9.7016668
-55.02425 -51.626682 9.7023315
57.657104 -49.140697 9.7614279
57.725574 -48.678841 9.7312183
58.243435 -48.078869 9.7329445
58.484566 -47.76421 9.7313576
6.1769986 -47.29142 9.7221813
7.1776605 -47.219173 9.7359657
8.1843061 -47.161232 9.7567587
9.200819 -47.127808 9.7866688
-10.762998 -46.722889 9.7633142
-11.005607 -46.657524 9.761529
-12.270397 -46.533047 9.7970438
60.025127 -45.95023 9.7418585
-55.554813 -19.322866 9.7469778
-34.698616 2.5405803 9.7393761
-34.750629 3.8257155 9.7847862
-34.699238 4.0035787 9.7764616
-34.610668 5.0967793 9.7911921
-35.987919 18.769669 9.7950211
-34.414738 21.037693 9.7375298
31.62801 35.494965 9.7050543
31.426596 36.022533 9.7559023
50.434517 -57.725201 9.8700533
51.591904 -56.015255 9.8089418
52.189163 -56.069836 9.8637381
10.234927 -47.14238 9.8304996
11.017541 -47.155045 9.8666992
-13.318681 -46.534733 9.850913
-14.360559 -46.474354 9.8969669
-35.20174 3.3181782 9.8911667
32.147038 35.697044 9.8017187
50.335434 -58.224865 9.9083214
12.065732 -47.152313 9.9150887
-15.193665 -46.566807 9.9627743
-16.212694 -46.374043 9.9902315
67.293526 -38.254318 9.9655428
67.121788 -37.692402 9.9132814
67.92791 -36.750546 9.9442444
68.453979 -36.571812 9.9907818
-37.092587 -31.954672 9.9478197
-38.083374 -31.111273 9.9896107
-38.17384 -30.853477 9.9715805
59.866398 -1.0994135 9.9507809
-35.576649 2.231719 9.9684706
-55.144352 24.520824 9.9900551
-54.987106 24.796198 9.9851894
-54.524712 25.277214 9.9503489
-50.608727 32.446934 9.9544277
13.180488 -47.346325 10.007912
-17.35491 -46.495228 10.087399
-16.772419 -46.410664 10.033155
69.274803 -36.5438 10.078222
-37.355633 -32.524452 10.059056
-57.168545 -21.236584 10.090207
-57.156456 -20.892418 10.069528
-49.214813 -2.5752738 10.005134
60.362534 -1.4255866 10.030426
-35.916073 1.688573 10.051285
-35.721336 2.0535698 10.004296
-35.493259 5.6066556 10.045639
-51.540333 32.289158 10.065575
14.126729 -47.814785 10.146514
15.101871 -47.431179 10.131299
16.188528 -47.380272 10.188553
-18.776558 -46.550247 10.19683
-37.297729 -33.518738 10.178922
72.122627 -32.875584 10.19393
72.554352 -31.702644 10.183727
61.088085 -1.7636514 10.146705
-36.340912 1.3282946 10.160977
-41.583328 7.0181446 10.157733
-35.673252 22.325871 10.141232
-56.614357 24.469448 10.199944
-52.981262 30.920561 10.148376
-52.851498 31.216698 10.154449
-52.441761 32.095535 10.170712
50.072033 -62.40583 10.281723
50.656811 -61.795429 10.268858
51.08976 -61.660736 10.289964
17.001137 -47.310947 10.228423
-19.367805 -46.604912 10.24999
-20.388367 -46.300762 10.273236
73.294518 -31.113825 10.238657
-50.359264 -3.1636341 10.233815
61.814568 -2.1094553 10.263433
-36.752209 -0.96013761 10.268032
-36.03957 5.8863759 10.202084
-54.079922 30.808718 10.290174
-53.799911 31.022989 10.268622
61.141682 -52.660255 10.367456
64.427544 -48.780178 10.38248
18.237717 -47.586521 10.362758
-21.257244 -46.290665 10.340395
-51.003208 -3.7399917 10.366323
-36.978539 -1.5462494 10.333992
-37.002846 0.77219748 10.333983
-35.698959 -52.449131 10.48684
-37.033535 -51.460827 10.479412
-37.861179 -50.905434 10.485583
65.382896 -48.432026 10.450839
19.06922 -47.50425 10.407235
-51.593082 -4.8700151 10.498982
-39.495174 18.044235 10.448527
-36.039375 -52.358223 10.505331
-36.846451 -51.77071 10.502158
-38.288445 -50.921745 10.528102
-39.247902 -50.526711 10.570435
66.263962 -48.015621 10.507979
66.97319 -47.995102 10.5772
21.183233 -47.628899 10.59042
20.251986 -47.538105 10.501648
-0.059796792 -43.936989 10.592238
-51.833103 -5.1662974 10.550995
31.302677 -56.220623 10.649349
31.863077 -55.840927 10.640716
32.138584 -55.643799 10.635448
33.038082 -55.177681 10.644289
33.669403 -54.916313 10.660868
34.318634 -54.679134 10.683318
35.212627 -54.190331 10.694532
-40.173359 -50.616833 10.67203
67.955315 -48.160412 10.687227
1.5597156 -44.121078 10.642091
2.0259283 -44.181355 10.660648
3.1833808 -44.11935 10.662808
0.6323452 -44.01545 10.611819
26.048111 35.485287 10.627416
25.826015 35.572857 10.613396
25.323427 36.061134 10.637362
29.994305 -57.358452 10.709086
22.187563 -47.841991 10.709201
23.020605 -47.657837 10.746454
24.099857 -47.329361 10.782914
31.365412 -57.745789 10.865634
-34.532486 -56.268894 10.895395
-34.652927 -55.80666 10.843036
-35.328823 -55.588318 10.870533
-41.826809 -51.036484 10.88795
-42.118782 -50.847588 10.89419
-43.097828 -49.86615 10.875388
-44.141788 -48.963448 10.87733
75.459671 -38.794624 10.879498
75.745102 -37.941883 10.863434
76.267761 -37.207634 10.881077
31.014929 -58.554909 10.952153
-36.265488 -55.76543 10.974195
-36.888493 -54.818764 10.903341
24.770386 -48.017593 10.961523
76.650551 -36.897606 10.906804
77.180099 -36.654728 10.952633
77.480583 -35.805939 10.941892
-36.759686 27.241678 10.989715
-45.290813 -49.714909 11.087658
71.184631 -48.234829 11.018519
71.361839 -47.810631 11.007502
-36.958946 27.091209 11.006051
-36.279629 28.080574 11.018648
71.547455 -49.02964 11.110246
-37.169914 15.360593 11.19593
-34.901733 19.859215 11.180904
31.176928 -60.377804 11.219715
-46.672871 -50.16927 11.288719
-1.2861981 -46.949669 11.291114
-5.2155066 -46.700844 11.294351
-4.9682078 -46.70282 11.288758
31.816471 -45.768883 11.296679
-35.270927 19.58436 11.23089
-34.910957 20.106972 11.216114
-2.0362723 -47.224751 11.360257
-1.7867175 -47.176003 11.346825
-3.7588105 -47.018124 11.336058
4.8928595 -47.036396 11.36923
5.1441984 -47.053509 11.379457
-6.7401481 -46.93597 11.391915
-3.5029786 -46.906387 11.305928
-2.7663386 -46.974407 11.310692
4.1374621 -46.940025 11.329978
-8.2137365 -46.712368 11.393736
31.772797 -46.220554 11.363972
32.595974 -45.854382 11.397612
57.942406 -37.527302 11.398106
58.068237 -37.177784 11.384944
6.1663313 -47.211281 11.444298
7.1740842 -47.196026 11.473927
-7.4916844 -46.918369 11.413486
-10.506336 -46.725525 11.499399
-9.9904127 -46.710476 11.470763
33.08556 -45.523808 11.401174
58.044697 -38.02702 11.454827
58.427547 -36.976746 11.415906
-36.388386 19.466145 11.478405
31.701031 35.576611 11.467909
38.708706 -58.209885 11.530858
8.7030525 -47.205044 11.535365
9.2205696 -47.227692 11.563063
-12.319674 -46.721737 11.596902
-11.793658 -46.704311 11.562935
59.269806 -36.643684 11.501131
32.147644 35.697716 11.557639
10.031437 -47.400032 11.639791
11.073527 -47.392124 11.690848
-13.103457 -46.706905 11.640694
-14.397085 -46.593544 11.699339
60.301704 -36.41164 11.621536
60.875168 -35.891251 11.657402
61.244404 -35.247986 11.656751
61.509293 -34.971916 11.671504
31.954147 36.624973 11.687888
12.149527 -47.476604 11.76941
-15.497035 -46.667885 11.792648
62.118134 -34.887524 11.748931
13.208897 -47.447468 11.826583
14.028067 -47.483608 11.88717
-16.571934 -46.618992 11.862104
15.144433 -47.56382 11.981038
-17.123808 -46.619961 11.90535
-18.732262 -46.439732 11.999222
16.265343 -47.603462 12.071375
15.700844 -47.577976 12.024035
-19.310833 -46.466976 12.055393
-20.113956 -46.333355 12.099105
17.081038 -47.531761 12.118448
-21.237978 -46.248474 12.186516
-53.678455 -51.971703 12.268949
-54.232933 -51.419582 12.271727
18.250547 -47.619781 12.232016
57.485718 -47.454651 12.26934
-0.98563516 -44.178963 12.288572
1.7920456 -44.138149 12.286424
2.0250883 -44.164043 12.296219
3.412796 -44.079746 12.297537
-0.7505253 -43.933723 12.221798
25.645697 35.717274 12.248977
25.149536 36.216084 12.281061
24.997229 36.402824 12.298909
-52.497154 -54.124813 12.378048
-52.698711 -53.766388 12.359617
-53.587738 -52.98296 12.370829
-55.026073 -51.088913 12.32737
57.491852 -48.482147 12.374221
19.128021 -47.649834 12.31286
20.262419 -47.562454 12.394862
58.212608 -47.035969 12.316686
58.507294 -46.768738 12.326614
-53.404011 -53.919407 12.455214
21.425379 -47.500854 12.490185
-53.125931 -55.35207 12.587151
-56.415359 -51.833797 12.568995
22.014601 -47.47102 12.540763
23.211977 -47.417942 12.649149
-1.2497195 -45.483501 12.639611
-36.218502 -52.032684 12.758604
-36.443054 -51.774902 12.742484
-37.184135 -51.103195 12.719851
-37.919605 -50.984234 12.785748
-38.183746 -50.782074 12.784931
24.087055 -47.304344 12.716322
31.641275 -55.453648 12.870317
32.567574 -55.046013 12.89258
32.129002 -54.961445 12.835091
-1.5063108 -46.083088 12.8021
68.172623 -37.812515 12.812106
69.021225 -37.341026 12.8942
-2.0169804 -46.749794 12.985471
72.272705 -32.032364 12.986479
72.262993 -31.575541 12.955965
-40.34787 -50.837357 13.050163
-39.942101 -50.870171 13.006392
-4.0066853 -47.016964 13.089744
-3.7590947 -47.021793 13.085737
-2.7695284 -47.030987 13.070497
-4.495492 -46.933537 13.078955
4.6358538 -46.958763 13.095447
-5.2290964 -46.825356 13.069906
-2.2681236 -46.874081 13.021649
-6.1827207 -46.503201 13.014582
-8.4231882 -46.472206 13.098045
-7.9162416 -46.440918 13.066589
72.673088 -32.666733 13.085299
72.935417 -30.961634 13.015394
34.64917 -55.203964 13.129916
-41.143883 -50.741199 13.132218
-42.251816 -49.933422 13.148314
5.654068 -47.134731 13.172633
4.8906393 -47.015556 13.117638
-9.4424095 -46.522423 13.162129
-10.442419 -46.438026 13.195414
-36.913048 -54.855373 13.28795
-37.165779 -54.611343 13.276097
-43.12215 -49.894367 13.252316
65.583786 -47.523636 13.291617
6.4168897 -47.20113 13.216716
7.1819577 -47.246983 13.258583
8.1575489 -47.009243 13.238353
9.1834946 -47.040192 13.297006
-11.71999 -46.409626 13.266679
-12.230952 -46.382004 13.293407
31.711952 35.588821 13.242169
-43.848953 -50.203209 13.390201
65.366959 -48.420242 13.347729
10.225605 -47.09993 13.369711
-13.298477 -46.463509 13.389659
-36.97438 -55.574135 13.410796
62.500492 -53.260239 13.468638
-44.183338 -50.055023 13.411351
-44.480743 -49.863544 13.421792
66.969673 -47.463093 13.464566
11.252265 -47.045441 13.417307
12.049625 -47.089977 13.48071
-14.339377 -46.405239 13.453609
-37.097843 -56.399761 13.557986
13.126979 -47.155819 13.572894
-15.386971 -46.333893 13.520452
-16.443529 -46.255184 13.591914
32.772026 -59.580719 13.67732
14.484748 -47.202827 13.687943
-17.301828 -46.352043 13.694569
33.188869 -59.595554 13.719185
15.060425 -47.302021 13.759655
-18.164059 -46.425247 13.794917
16.206745 -47.433205 13.889924
-19.254866 -46.331474 13.880342
17.285021 -47.319004 13.957983
-20.623623 -46.177917 13.986974
75.995758 -38.567192 13.963085
76.257576 -38.198189 13.973845
76.74231 -37.438789 13.989453
59.209709 -36.606606 13.999305
17.908205 -47.471661 14.054759
18.179224 -47.434883 14.071512
-20.933041 -46.220192 14.031159
-21.212278 -46.192196 14.055229
76.146118 -39.14698 14.02602
76.622864 -37.879444 14.003194
58.838741 -37.236454 14.002972
59.023521 -36.921028 14.000783
59.986691 -35.793785 14.046551
69.035133 -52.262348 14.177424
71.591019 -48.509743 14.16085
72.150291 -47.791767 14.171256
19.042841 -47.438942 14.157501
59.24152 -38.366982 14.187267
59.11039 -37.843662 14.110829
60.437599 -35.633766 14.106129
68.910637 -53.314072 14.262886
68.925491 -52.750229 14.210349
20.241467 -47.513554 14.299363
61.356384 -35.312309 14.229118
72.224701 -49.492973 14.331429
21.524994 -47.720493 14.488873
22.148726 -47.758694 14.568001
23.238239 -47.471317 14.624686
24.102991 -47.335487 14.696082
57.782722 -48.210884 15.094054
57.863407 -47.765797 15.050947
58.281601 -47.598782 15.093247
59.114151 -47.252861 15.177017
59.33691 -46.92284 15.171063
59.905102 -45.858528 15.131409
60.070423 -45.487293 15.113337
58.711567 -49.50861 15.394417
-37.235611 -54.101837 15.595915
-38.325851 -53.262344 15.581818
-38.475304 -52.883339 15.531039
-37.980938 -53.966892 15.668406
-39.335613 -52.894051 15.650489
68.402924 -37.940029 15.673119
69.065323 -36.897861 15.689514
73.018333 -32.362297 15.99444
-40.987762 -53.931595 16.070938
73.463577 -32.099285 16.05311
62.325508 -53.111404 16.383038
66.212982 -47.978748 16.361383
66.234047 -48.525627 16.427221
59.783722 -35.248997 16.494682
59.593761 -36.412918 16.59516
60.061226 -34.989033 16.519682
59.595104 -37.277859 16.700281
60.280796 -38.591484 16.996077
76.700584 -37.917812 17.10058
72.481041 -49.11182 17.486088
72.537148 -48.596756 17.439257
72.99221 -47.799755 17.427584
59.947556 -45.890965 17.899912
58.248539 -48.598747 17.983152
58.621521 -47.875835 17.943493
59.109234 -47.248943 17.940296
59.387531 -46.962791 17.949562
58.11562 -49.007084 18.020132
59.536785 -36.378174 19.170666
59.817017 -35.692741 19.140179
60.053886 -35.407974 19.155924
59.611851 -37.724743 19.378031
59.486614 -38.084049 19.401329
57.88269 -48.294125 20.671911
57.974365 -47.857204 20.616154
58.201565 -47.533546 20.608274
58.7915 -46.995464 20.640825
57.713612 -49.188759 20.791599
59.220642 -46.831081 20.703524
60.276279 -46.142113 20.813707
60.688805 -47.474773 21.119465
-25.354326 -30.119539 0.14886153
-24.863443 -30.198896 0.13916469
-23.905226 -30.039124 0.12733442
-23.591063 -29.984056 0.12348038
-22.763819 -29.93704 0.11094087
-21.999538 -29.942039 0.098058879
-20.952564 -29.873465 0.081938684
-28.791182 -26.975225 0.27118599
-25.105606 -26.035698 0.23708731
-25.832277 -25.92029 0.25053585
-26.082594 -25.885162 0.25503045
-28.63282 -25.723316 0.29567528
-28.580511 -24.872797 0.31291372
-28.44392 -23.978168 0.32972163
-28.273691 -22.835461 0.35099831
-10.469736 -3.5370119 0.054667354
-19.973909 -29.850998 0.065599501
-18.959679 -29.733109 0.050658524
-13.499552 -29.766039 -0.052143544
-12.81575 -29.552881 -0.060276985
-11.061617 -28.957239 -0.080557704
-19.958076 -28.861029 0.08909291
-16.396709 -26.29355 0.088875771
-24.63213 -26.112768 0.22819495
-23.688578 -25.971565 0.21688539
-28.169838 -21.784763 0.37100881
-28.208527 -20.870495 0.38989991
-28.235905 -19.973583 0.40801644
-28.245506 -18.870056 0.42960948
-28.269112 -17.810532 0.45011282
-28.294075 -16.98921 0.46579602
-28.4557 -15.85707 0.48851776
-28.865824 -14.873871 0.51097882
-5.9314737 -9.9327755 -0.13088119
-4.8079791 -9.6285696 -0.11215869
-3.2848096 -9.5260391 -0.1089043
-4.5311265 -8.9953709 -0.077812612
-0.0876261 -6.5742121 -0.20084262
-1.9968642 -5.9145513 -0.1493926
3.7154832 -5.9415097 -0.266334
-2.3967488 -5.7086473 -0.13957267
5.0647545 -3.0367141 -0.2997967
-10.458653 -2.9649992 0.068457127
5.0615411 -2.9543045 -0.29214698
11.511967 -2.9669142 -0.4463554
-10.430207 -1.9533418 0.089842439
5.7283363 -1.9509561 -0.30567387
11.721687 -1.9708481 -0.440698
8.1831608 -1.5546294 -0.3963376
-5.0993123 -1.4692571 -0.0077562779
6.0062099 -1.442914 -0.31802824
-10.323993 -0.9355256 0.10893051
-0.86994636 -0.93928736 -0.10622972
8.2933922 -0.96532488 -0.39369744
11.897074 -0.94019765 -0.43696445
6.1527767 -0.85730976 -0.31659824
12.000509 -0.33730486 -0.43736559
5.9604206 1.0335448 -0.27397868
8.2365265 1.0565395 -0.3684749
12.098538 1.0618584 -0.43388006
11.992011 1.9558707 -0.42317277
5.5316186 2.0474041 -0.24451558
7.8862543 2.0402305 -0.33884782
11.981699 2.0399275 -0.42234421
4.8233075 3.0402646 -0.21177316
7.292407 3.0454204 -0.29811054
11.877415 3.0353789 -0.41657606
6.400126 4.09236 -0.24842897
-9.6449766 -29.411539 -0.12220967
-10.185312 -28.990513 -0.099707454
-9.2011194 -28.688673 -0.11275405
-8.8242893 -28.587524 -0.11822888
-7.9143834 -28.367529 -0.13233715
-6.8524075 -28.084625 -0.14857593
-5.6738091 -27.807745 -0.16820945
-5.3039179 -26.949493 -0.15379773
-4.959394 -26.759874 -0.15677515
-6.0084639 -26.236391 -0.1184473
-15.908101 -26.159018 0.083438873
-3.9627132 -26.206526 -0.16556795
-15.00635 -25.964275 0.071921557
-3.191885 -25.876104 -0.17534333
-2.8572066 -25.546434 -0.17463732
-1.9032243 -25.572685 -0.19919997
-12.810227 -25.3417 0.046538353
-11.838054 -25.131237 0.033169121
-11.431236 -24.991604 0.028781414
-1.3611662 -9.4655905 -0.12146965
-0.99994421 -9.41012 -0.12303023
-2.981559 -9.4044724 -0.10341683
1.0837333 -9.1022434 -0.1454594
-3.2015381 -8.9436369 -0.076228008
1.7944372 -8.9934702 -0.15832648
2.0980959 -8.9481602 -0.16480207
3.0025978 -8.8122578 -0.18728483
4.0092869 -8.2717991 -0.19467279
5.3316035 -7.7348723 -0.22579959
6.0887012 -7.6271758 -0.2600418
7.4172411 -6.9931412 -0.30457485
8.0019436 -6.5557175 -0.32043368
8.4654655 -5.961514 -0.32415986
9.768611 -5.3674612 -0.39079088
9.9634609 -4.9399843 -0.38898283
10.032269 -4.7419119 -0.38695759
10.669656 -3.9521549 -0.40867037
-27.978956 -3.891243 0.66647023
10.427736 4.5565772 -0.31988513
-28.118484 8.5786934 0.77440536
-1.6360996 -24.529324 -0.17756976
-1.3094906 -23.955015 -0.17025267
-0.99846327 -23.40732 -0.16330844
-0.70191026 -22.884495 -0.15671468
-0.033530593 -21.915159 -0.14774008
0.58465785 -20.876322 -0.13580358
1.036064 -20.19416 -0.12935087
19.472507 -8.5622854 -0.51874787
19.882116 -7.941072 -0.52594626
-5.2434216 4.0372305 0.22684404
1.1457325 -19.932516 -0.12518288
1.7558141 -18.954153 -0.11524459
2.0390792 -18.500061 -0.1107545
2.3985484 -17.960815 -0.10618976
8.7850084 -17.422598 -0.29313755
9.0117016 -17.447342 -0.30159158
7.3587666 -17.230881 -0.23986499
4.0750799 -17.109915 -0.13222787
6.5280199 -17.114714 -0.20943651
3.6968465 -17.015717 -0.11829539
5.8287039 -17.023663 -0.18444347
3.0601707 -16.965178 -0.098094761
5.1486664 -16.930403 -0.16042048
9.7843971 -16.987284 -0.31672519
4.394412 -16.831921 -0.13440043
9.3718987 -15.729455 -0.2700147
10.001364 -15.248883 -0.28038478
10.329545 -14.994078 -0.2859267
11.008243 -14.366418 -0.2954697
11.369206 -13.938093 -0.29860604
12.019513 -13.173562 -0.30518711
12.192493 -12.966105 -0.30700991
11.995646 -11.695074 -0.26995835
12.053549 -11.636053 -0.27088815
14.018355 -11.177025 -0.33937645
12.783863 -10.965392 -0.28488928
14.205151 -10.988716 -0.34295765
13.002186 -10.716826 -0.28823861
15.022712 -10.168093 -0.35955459
15.212071 -9.9757853 -0.36354801
16.055031 -9.1369791 -0.38253486
16.24658 -8.9359417 -0.38684356
18.818382 -8.7031975 -0.49290511
17.046846 -8.1266127 -0.40618664
17.193096 -7.9938874 -0.41012037
20.022165 -7.2052011 -0.51992631
19.855635 -6.9195166 -0.50800824
19.340515 -5.9865365 -0.47063309
17.880447 -5.4035668 -0.3971743
17.263943 -4.9270453 -0.36265886
16.824543 -4.6142044 -0.33850515
15.894354 -3.9261408 -0.28711146
15.997053 -2.9461181 -0.27805209
16.051125 -2.8376398 -0.2790277
16.494699 -1.9511375 -0.28767318
17.066895 -1.2790256 -0.3055158
17.317547 -0.96462113 -0.31329605
17.061691 1.0193259 -0.2822099
16.972569 1.2591119 -0.27613229
16.673199 2.0428829 -0.25638336
16.418041 3.0592213 -0.23785201
-13.008905 3.6182017 0.58603168
-13.045503 4.0337143 0.58867633
15.960142 4.4257593 -0.20982146
-12.961385 4.585928 0.59046704
-11.969326 5.2999473 0.58230805
14.895086 5.7831516 -0.1576826
-7.4334221 4.4539356 0.52725399
-10.223513 5.184051 0.56191492
-9.8980541 5.1821747 0.55811512
-8.9453964 5.1468034 0.54677832
13.104036 5.983779 -0.079478353
12.972437 5.9927363 -0.073790118
-2.9774175 7.0016775 0.45835459
-1.3784631 7.0187378 0.42691386
1.7863799 7.0053592 0.59453028
5.0438104 7.1114717 0.52243197
11.915514 7.9436979 0.43145221
12.06967 7.929924 0.4290694
-9.2308435 8.4592485 1.0281403
-8.9573669 8.4214935 1.016084
-10.029272 8.6125231 1.0643568
-5.4721384 9.0191822 0.89065862
-5.3985324 10.079246 0.91339737
11.731905 10.020216 0.47835311
-5.4216099 11.088742 0.93904996
-5.3546996 12.087101 0.96151811
-13.200495 6.1466999 1.1541944
-12.98112 6.8263016 1.1562225
-12.900311 7.0197883 1.1561052
-13.006953 7.2610855 1.1649799
-12.24142 8.884469 1.1624728
-5.3491974 13.189556 0.98919654
-4.9939704 14.29631 1.0050817
-3.6965721 15.886677 1.0028377
-3.9330375 18.598791 1.0827236
26.994835 3.9706256 0.19824404
26.704002 4.0609651 0.2023887
25.974533 4.4726715 0.21524268
24.757057 5.0120788 0.23513907
23.587444 5.3706155 0.25242877
22.837034 5.785676 0.26634061
22.424807 6.0294909 0.27433366
21.953485 6.244473 0.2826339
21.220919 7.055964 0.30317271
21.22311 8.0064116 0.31846887
20.984577 8.8803511 0.33589923
20.81045 9.0472317 0.34081244
21.067768 9.5463266 0.34646726
21.427307 10.113063 0.35218954
21.29525 11.115025 0.37194866
20.571676 11.24253 0.38331461
21.435253 12.466768 0.39559996
21.83737 13.016656 0.40101945
22.043802 13.301007 0.4038589
22.602669 14.138463 0.41292721
-2.9509706 20.824617 1.1112586
-2.8899765 21.08238 1.1163186
16.571011 -27.745277 0.27168423
17.052626 -27.254427 0.25988933
17.283321 -26.997637 0.2542136
18.067619 -26.397717 0.23669794
19.144243 -25.946882 0.21520826
-28.992941 -8.3664436 1.7198049
-28.940912 -7.8403873 1.7203424
-29.014229 -4.5308309 1.7449342
-29.116007 -3.8927522 1.7543061
27.840731 -3.2774968 0.11606687
-29.016909 -2.9098597 1.7576971
33.026226 -0.75488472 0.085244417
32.944691 -0.58783793 0.087661803
32.435726 1.0458301 0.10920328
32.129532 2.0025544 0.12260836
31.964869 2.4741042 0.12955266
30.796108 2.8439519 0.14568722
29.867256 3.0545435 0.15762383
28.933134 3.245497 0.16943789
27.785086 3.5301051 0.18464535
-28.100199 10.105955 1.8723731
-28.015215 11.124352 1.8847477
23.728432 21.946856 0.56101
23.68346 22.133341 0.56583005
2.9002018 26.857468 1.1076343
3.0440531 26.901434 1.105011
4.0492973 27.026827 1.0820711
5.0742493 27.17746 1.0599483
6.101665 27.218756 1.0354319
16.134977 27.255041 0.81750906
10.630064 -35.520374 0.44731814
11.03201 -35.535091 0.43813166
12.041864 -35.549789 0.415207
9.4333048 -35.452328 0.47491872
-1.2664962 -35.224972 0.75453085
-0.89665675 -35.238785 0.74397379
7.6551337 -35.226868 0.51620591
8.0362806 -35.227165 0.50688899
-2.1866391 -35.132561 0.78065598
1.1366857 -35.192432 0.68621922
2.0571969 -35.14357 0.66053647
6.1297612 -35.120678 0.55340743
3.1591907 -35.075382 0.63027215
4.0767283 -35.018337 0.60553437
5.0012693 -35.023949 0.58150464
-3.2780695 -34.925213 0.8114695
-2.9144189 -34.99139 0.80111355
-4.9470301 -34.822319 0.86132646
-7.4062452 -34.721237 0.93761677
-6.836525 -34.758369 0.91978407
-5.8865795 -34.786472 0.89015234
-9.340023 -34.623638 0.99947572
-8.9428148 -34.621254 0.98647594
8.6294947 -32.68401 0.47425935
15.444551 -29.618853 0.30443972
15.704472 -28.981611 0.29553449
16.052246 -28.547462 0.28619471
21.985743 -26.101377 0.16687804
21.622076 -25.917622 0.17228287
20.073353 -25.546009 0.19719827
32.994427 -19.934927 -0.0038400292
-29.391079 -19.860487 1.7061036
33.009995 -19.714165 -0.0039024353
-29.367048 -18.943439 1.7056448
33.13414 -18.880478 -0.0047977567
33.27224 -17.850307 -0.0053166151
-29.250029 -17.780758 1.7017791
-29.204262 -16.906498 1.7009729
33.31953 -16.79501 -0.0042440295
33.267162 -15.92471 -0.0019350648
-29.177946 -15.860232 1.7015979
-29.061548 -14.997629 1.6983354
33.248734 -14.887115 0.00066661835
33.234917 -13.877606 0.0035644174
-29.042091 -13.815552 1.7003942
-29.09668 -12.886746 1.7054805
33.183594 -12.876424 0.0072873831
-29.144495 -11.972739 1.7106227
33.172813 -11.914149 0.010829329
33.173824 -10.975243 0.014557123
-29.095591 -10.859202 1.7127106
-29.069668 -9.9573174 1.7154269
33.254383 -9.8952227 0.018487334
-28.998648 -9.0586367 1.716521
-29.007236 -8.8877039 1.7177527
33.31797 -8.8263922 0.023124516
33.164646 -7.8955894 0.029851019
33.167576 -6.8451829 0.036075413
33.252201 -5.9960599 0.040664852
33.210655 -4.9598961 0.04828769
33.141933 -3.5962276 0.059321463
33.116249 -2.9224846 0.065053999
33.066727 -1.9178962 0.074171484
-27.985043 11.467207 1.8889663
-28.017015 12.017152 1.8993751
-27.901434 15.14702 1.9482739
-27.800297 16.079971 1.9608338
-27.781879 17.083252 1.9786313
-27.778234 18.125982 1.9982045
23.656088 23.052822 0.58680153
23.624655 24.261501 0.61465371
23.353554 25.263344 0.6419698
22.906143 25.547871 0.65583384
21.956779 26.037455 0.68303353
20.900295 26.651602 0.71564835
18.908148 27.069672 0.7610513
19.114338 27.076817 0.75749964
20.013395 27.192019 0.7442354
17.172592 27.434366 0.80220985
13.708195 -35.617096 0.37861496
16.952501 -35.664997 0.31002474
17.160517 -35.63192 0.30554548
18.065542 -35.642403 0.2871865
14.123802 -35.608131 0.36949652
15.141153 -35.495728 0.34689915
31.18367 -30.572716 0.033787429
31.035366 -29.789598 0.034065783
-30.079668 -29.079082 1.7421814
30.468464 -28.91473 0.040555596
-30.116331 -28.808363 1.7431508
31.081953 -28.612034 0.030588627
31.982677 -27.97394 0.015902281
-30.017017 -27.824135 1.7373867
32.095058 -27.783009 0.01390034
-30.040329 -26.974979 1.7370155
32.149189 -26.965494 0.011707306
32.564079 -25.918329 0.0042624474
32.627693 -24.883644 0.002202034
32.674355 -23.867407 0.00070184469
32.756493 -22.907198 -0.00094348192
32.824646 -21.962799 -0.002096653
32.925976 -20.827158 -0.0033352375
-6.3687954 10.542507 1.4212471
-6.3468866 11.111887 1.4498519
-6.1996226 12.078973 1.4933202
30.238016 -36.189625 0.067008138
30.971706 -35.937778 0.05391115
31.208998 -35.842144 0.049667895
31.851641 -34.724152 0.035451412
32.012413 -34.541012 0.032287776
-29.315023 -34.272274 1.7248747
-27.064781 -34.209602 1.6368792
33.011738 -34.198723 0.015394747
-28.851049 -34.113239 1.7061827
33.150379 -33.989948 0.012614787
-30.006332 -33.598831 1.7501065
33.106037 -32.8909 0.010260165
-30.179119 -32.736801 1.7545848
-30.13678 -31.681274 1.7502012
-30.094988 -30.660343 1.7461176
-7.4907956 11.543247 1.5395713
-9.0401707 11.787983 1.6466386
-8.9379225 11.797143 1.6407101
-6.1357832 13.013856 1.541014
-11.238799 12.569862 1.8243073
-10.954779 12.549064 1.8049531
-9.9944572 12.726965 1.7524166
-12.267104 12.758973 1.9003842
-5.2269192 17.207647 1.7355642
-5.126914 18.066853 1.7816634
-4.4749241 20.140837 1.876922
-4.1432152 21.037973 1.9172759
-3.4972758 22.918602 2.0060635
-2.9635477 24.102749 2.0584898
25.81307 12.960275 1.31459
25.621241 13.021049 1.3131313
24.97761 13.317454 1.3118328
26.650467 11.596669 1.2855101
27.373177 11.765378 1.3053528
26.530527 12.022497 1.2968524
26.001278 14.759263 1.3823134
26.443508 15.204059 1.4064147
2.1083069 28.037117 2.143008
3.1522312 28.250998 2.1297641
4.0566859 28.364988 2.1154468
5.1110835 28.369564 2.0926487
6.0199537 28.354933 2.0734591
7.0930758 28.348669 2.0533779
-29.463556 -5.7803502 2.8579597
-29.374269 -4.9306874 2.8517272
-29.331406 -3.9346497 2.8508034
-29.38615 -2.9585505 2.8592062
-29.502861 -1.9887877 2.8741395
-29.377289 -0.84578645 2.8727314
-29.187799 1.0887575 2.8772347
-29.132524 2.0525484 2.885004
-29.077374 3.016999 2.8943858
-29.033459 4.1483927 2.9090748
-28.998407 4.960762 2.9206777
-29.003633 5.1258826 2.9241524
-28.992712 5.2885385 2.9263434
-28.976917 6.1125793 2.9412553
-29.00609 6.7868028 2.9576015
-28.974669 7.1159363 2.9622464
-28.871368 8.1070232 2.9766371
28.971193 12.317811 1.3549614
29.364353 12.318838 1.3629656
26.638475 16.055212 1.4417434
-6.5377092 16.176699 2.3751998
-7.7541337 16.410181 2.4790514
26.534714 17.12075 1.4814115
26.127054 18.004543 1.5107067
25.954325 18.274881 1.5192888
15.306896 28.071468 1.9494174
13.916175 28.170708 1.9626546
14.093701 28.172022 1.9616122
12.733062 28.254358 1.9761714
11.752987 28.35778 1.9910517
17.919552 -29.074488 1.4197341
18.025702 -28.908123 1.4136347
19.271063 -28.268152 1.390523
-29.639477 -7.8656931 2.874547
-29.594912 -6.9935217 2.8690944
34.265556 -1.999567 1.2093326
34.265537 -0.96653438 1.2171502
34.219769 1.0943642 1.2366993
34.178638 2.123728 1.2485542
34.132095 3.1542063 1.2619872
34.095497 4.0156851 1.2745736
34.046822 5.0536609 1.2911903
34.005665 6.1001606 1.3098493
33.987396 6.2732663 1.3128269
33.923111 7.1473522 1.3292453
33.786629 8.0102882 1.3449192
33.107117 9.0852308 1.354496
-28.983276 9.1734056 3.0112906
-28.966471 10.046619 3.0324702
-28.959883 11.118621 3.0611053
32.766373 11.717073 1.4163337
-28.938774 12.024434 3.0853999
32.421871 12.146107 1.4212924
30.802649 12.588409 1.4006839
31.944023 12.701811 1.4277054
-8.0490131 16.327517 2.4929352
-9.3723793 16.730871 2.624439
-6.3564672 17.152039 2.4502635
-6.2539606 18.179682 2.536438
25.080194 21.140282 1.6315417
25.029133 22.001211 1.6699677
16.077024 28.130438 1.9497252
17.02018 28.119268 1.9464155
18.197033 28.121017 1.9447212
19.074188 28.230978 1.9504354
-30.027515 -15.706522 2.9702404
-30.024452 -14.888902 2.9594126
-30.00596 -13.882996 2.9461055
33.523296 10.12087 1.3898331
33.385105 11.004543 1.4100626
-6.0363202 19.044085 2.601881
20.189041 28.336599 1.9569314
21.104473 28.408686 1.9623691
22.038355 28.464842 1.967798
9.452693 -36.276482 1.7777056
8.6310978 -36.13216 1.7855802
7.836175 -36.065895 1.7970779
-2.9960589 -35.939205 2.0758481
-1.0961491 -35.93195 2.013407
-0.90781116 -35.941322 2.0079288
6.281116 -36.00502 1.8249365
-3.9447532 -35.875027 2.1061172
-30.08938 -17.426033 2.9996541
-30.098846 -16.789059 2.9907713
-11.433197 17.216797 2.8246133
-10.96361 17.336956 2.7969775
-28.624474 19.100613 3.3015988
-5.4464073 21.039572 2.7523317
24.586403 27.204664 1.9154046
24.309032 28.048708 1.9561515
23.984875 28.250208 1.9646664
15.362226 -36.552711 1.7146649
12.337873 -36.432682 1.7424233
13.192745 -36.490582 1.7344275
14.461659 -36.465267 1.7197616
10.46844 -36.333672 1.7641628
11.083497 -36.360027 1.756271
-30.618513 -22.395134 3.1263947
-12.370643 18.071894 2.9684103
-5.2120571 22.286583 2.8563104
16.278994 -36.635303 1.7101321
17.19672 -36.675495 1.7048609
-30.67271 -25.035564 3.1861577
-30.686958 -24.777004 3.1814084
34.200558 -24.74675 1.4134998
-30.707344 -23.996071 3.1658463
34.298115 -23.756935 1.3939056
21.145454 -36.987232 1.6971438
30.953506 -30.309011 1.5133471
31.487831 -29.90377 1.5072122
-30.910795 -28.066236 3.273217
-30.875565 -27.740179 3.2629185
34.293335 -27.630508 1.4803848
-30.943165 -26.92547 3.2480352
34.122871 -26.908323 1.4611765
34.205265 -25.844847 1.4378395
-4.5096865 24.020409 2.9843266
-29.488163 28.201408 3.7429242
25.845205 -36.950146 1.6921537
26.000648 -36.765671 1.6861453
-24.732573 -35.441921 3.0933802
-23.945745 -35.532066 3.050292
-25.859709 -35.391083 3.1585484
-31.06966 -30.684639 3.3498807
-31.047663 -29.712103 3.3233931
-30.994816 -29.353106 3.3107858
34.072933 -28.331562 1.4946017
-1.931594 26.334923 3.0935676
28.538609 -37.92979 1.7303669
27.63979 -37.916451 1.7276566
26.141903 -37.828163 1.7222586
-26.815502 -35.46291 3.2181637
-27.080969 -35.41367 3.2326851
-29.168835 -35.274845 3.3564789
-28.196907 -35.259884 3.2960424
-29.566887 -34.985916 3.3727367
-31.292648 -33.24799 3.4329536
-31.246807 -32.85527 3.4192653
-31.167065 -31.760555 3.3846035
31.145956 -37.692146 1.7328415
32.022621 -37.575623 1.7337537
-30.464355 -34.877903 3.4259224
-31.012001 -34.375347 3.4463181
-0.88131309 28.913317 3.3050897
-0.58433187 29.029762 3.3062098
33.225006 -37.030197 1.7244554
34.218624 -36.2253 1.7077943
35.008831 -35.947685 1.7060511
1.0922086 29.192087 3.2694139
-29.992273 4.9476342 4.1212454
-29.982628 5.1155295 4.1241512
-29.976555 6.137332 4.1494679
-29.948502 7.166441 4.1752672
14.8389 28.936575 3.1204035
35.161633 2.1740513 2.4553666
-29.87228 11.827695 4.3314929
-29.899933 12.026822 4.3427191
27.393469 21.058207 2.8271842
26.856564 21.749714 2.8516428
26.045288 22.196543 2.8511055
18.117802 28.948 3.1624629
-30.944025 -12.530991 4.2265449
-30.879812 -11.924417 4.2068176
-30.844154 -10.957418 4.1843328
35.140537 3.0592339 2.4689445
35.111603 4.1252565 2.4877648
35.090916 5.0189528 2.5059934
35.050022 6.0964313 2.5297279
35.019665 7.0024943 2.5521808
35.107529 8.1310167 2.5901909
35.102184 9.0675974 2.6195211
-29.894672 13.1732 4.3910522
-29.704414 15.065555 4.4577298
29.071201 20.563562 2.8650455
28.24959 21.063864 2.8623309
29.174707 21.095364 2.9027023
25.710026 24.571259 3.0065649
25.685396 25.06599 3.0416462
-30.966766 -15.363278 4.2985539
35.132244 10.027775 2.6537211
35.183464 11.207211 2.6993465
35.35751 12.058741 2.7416515
-29.812277 16.144951 4.5222354
-29.783371 17.184494 4.5724244
30.439928 20.883448 2.943433
-5.8535738 24.047968 3.9467754
-30.972618 -17.946493 4.3765574
-30.987814 -16.858864 4.344039
35.589466 13.157154 2.7986035
35.58345 14.191231 2.8422439
-29.781128 18.048941 4.6180182
-29.972927 19.052322 4.6925879
30.928976 21.002361 2.9718997
31.433876 21.126465 3.0014582
-5.613431 24.648397 4.0084901
-6.7763944 24.732286 4.093976
-7.0925331 24.809488 4.1250367
-5.4603491 25.107874 4.0580845
-3.2601476 25.988743 4.05089
-2.9764991 25.975199 4.0351415
-31.316153 -19.508341 4.4646358
-30.997364 -18.183226 4.3868494
35.644855 15.06375 2.8842347
35.578808 16.113609 2.9294181
35.727886 17.070402 2.9831045
-30.074343 20.032314 4.7580037
33.056892 21.054718 3.0693331
32.580566 21.450569 3.0714202
-8.064394 25.039564 4.2217836
-7.9108582 25.03071 4.2097259
-5.2864099 26.076439 4.1724176
-4.286418 26.137491 4.123796
-3.9999824 26.140532 4.1088114
-2.7190919 26.118229 4.0415626
-22.560389 29.440268 4.6991501
-31.576218 -21.343267 4.557538
-31.483789 -20.797014 4.5278783
35.568161 17.664633 3.0045469
35.451794 18.058121 3.0186739
35.133518 19.035219 3.0539167
34.992764 19.656765 3.080478
35.309303 20.081146 3.1186516
34.700687 21.158758 3.1502817
-2.4812365 27.396374 4.1986227
-23.188616 29.570957 4.7617259
-24.067696 29.662966 4.8429513
16.10079 -37.807106 3.1762357
15.366949 -37.65691 3.163043
-15.596169 -36.56918 4.0506434
-16.263844 -36.492962 4.0890388
-31.914303 -22.823881 4.6485319
35.013474 21.111885 3.1620731
-30.382544 23.426115 4.9907002
-2.2856131 28.132591 4.2868514
-25.661411 29.89085 4.9968481
17.006369 -37.778503 3.1785071
18.407593 -37.769508 3.1875114
19.152515 -37.828613 3.1981483
-17.980759 -36.554806 4.2090635
-31.90164 -24.931534 4.7335353
-31.94854 -23.891066 4.6948051
-11.369799 26.37602 4.6398282
-26.284555 29.93977 5.0546751
20.683218 -37.949848 3.2227409
21.4475 -37.968403 3.2335224
-32.000065 -25.556364 4.7698679
-11.211972 27.131708 4.7184911
-12.000727 27.309216 4.8039255
-0.30830121 30.017502 4.4579849
2.2147748 30.041979 4.3854852
21.737612 -38.035339 3.2418809
22.248085 -38.028942 3.2485366
22.746592 -37.99099 3.2533283
23.247189 -37.947823 3.2582231
23.81546 -38.010864 3.2716117
-32.257675 -28.068356 4.9066792
35.937542 -27.486059 3.040607
-32.098831 -27.345417 4.8585262
35.583351 -26.913393 3.0007198
-32.109287 -26.773052 4.8338079
-10.944373 28.084747 4.8136139
-30.379276 29.037371 5.3584328
-29.40613 29.985477 5.3357286
24.388077 -38.521297 3.3146162
25.170513 -38.449806 3.3237908
-32.169403 -29.834869 4.9815035
36.244202 -28.940382 3.1187587
-10.643174 29.040478 4.9081259
26.049206 -38.508507 3.3440952
27.189432 -38.493919 3.3661718
-32.372643 -31.30748 5.072176
-32.391983 -30.99749 5.0586801
35.924454 -30.553703 3.1822639
36.021362 -30.000055 3.1595373
36.089867 -29.743439 3.1500645
-31.422861 0.11071241 5.3716006
-31.341484 1.145582 5.3722425
-31.270624 2.0055742 5.3753495
-31.24132 3.0416842 5.3912263
28.282555 -38.796913 3.4085803
-26.435736 -37.006645 4.8718643
-32.549099 -32.821186 5.1641912
35.848476 -32.810349 3.290632
-31.771124 -5.5264401 5.4230909
-31.857151 -4.8234229 5.429791
-31.747091 -3.9198301 5.4079885
-31.626837 -2.8513277 5.3874092
-31.555403 -1.9728508 5.3777008
-31.220209 4.0831418 5.4124694
-31.234402 5.1371446 5.4433527
-31.260464 6.0267792 5.474637
-31.435654 7.1390839 5.5387912
29.234697 -38.855904 3.4337633
-28.467936 -36.812191 5.0265608
-32.726131 -34.405521 5.2616692
-32.591621 -33.912663 5.2240105
35.35046 -33.717209 3.3195329
-32.252388 -7.4444909 5.5199933
-32.228607 -6.8842168 5.5078297
-31.78245 -6.2489848 5.4329453
-31.337044 8.0261822 5.557724
-31.22616 9.1012373 5.5857449
-31.16539 10.015948 5.6177068
